0.002896 -0.003147 0.107901 87
0.002891 -0.002983 0.107731 92
0.002891 -0.002823 0.107731 95
0.002891 -0.002664 0.107731 99
0.002891 -0.002504 0.107731 100
0.002891 -0.002345 0.107731 101
0.002891 -0.002185 0.107731 101
0.002891 -0.002026 0.107731 102
0.002896 -0.001869 0.107901 104
0.002896 -0.001709 0.107901 103
0.002896 -0.001550 0.107901 102
0.002896 -0.001390 0.107901 101
0.002896 -0.001230 0.107901 101
0.002896 -0.001070 0.107901 99
0.002896 -0.000911 0.107901 98
0.002896 -0.000751 0.107901 98
0.002896 -0.000591 0.107901 99
0.002896 -0.000431 0.107901 101
0.002896 -0.000272 0.107901 102
0.002882 -0.000111 0.107394 106
0.002878 0.000047 0.107226 109
0.002855 0.000205 0.106395 113
0.002855 0.000362 0.106395 115
0.002851 0.000519 0.106230 116
0.002851 0.000676 0.106230 117
0.002846 0.000832 0.106066 120
0.002782 0.000967 0.103663 125
0.002749 0.001107 0.102425 130
0.002745 0.001257 0.102272 133
0.002745 0.001408 0.102272 136
0.002745 0.001559 0.102272 139
0.002724 0.001698 0.101516 143
0.002720 0.001846 0.101366 145
0.002685 0.001970 0.100036 150
0.002650 0.002090 0.098741 156
0.002642 0.002230 0.098457 161
0.002631 0.002366 0.098035 168
0.002635 0.002514 0.098176 173
0.002646 0.002671 0.098599 179
0.002646 0.002817 0.098599 183
0.002646 0.002963 0.098599 185
0.002642 0.003105 0.098457 189
0.002642 0.003250 0.098457 189
0.002639 0.003391 0.098316 186
0.002639 0.003537 0.098316 185
0.002639 0.003682 0.098316 183
0.002639 0.003828 0.098316 182
0.002639 0.003973 0.098316 182
0.002639 0.004119 0.098316 182
0.002642 0.004271 0.098457 182
0.002646 0.004423 0.098599 180
0.002669 0.004609 0.099456 177
0.002677 0.004770 0.099745 175
0.002685 0.004932 0.100036 173
0.002708 0.005125 0.100919 170
0.002757 0.005369 0.102732 166
0.002769 0.005546 0.103195 163
0.002769 0.005698 0.103195 162
0.002769 0.005851 0.103195 161
0.002769 0.006004 0.103195 163
0.002825 0.006280 0.105253 169
0.002891 0.006587 0.107731 174
0.002896 0.006757 0.107901 176
0.002914 0.006961 0.108583 179
0.002942 0.007190 0.109624 182
0.002985 0.007459 0.111223 185
0.002999 0.007661 0.111767 187
0.003049 0.007956 0.113617 184
0.003054 0.008138 0.113806 184
0.003059 0.008320 0.113995 183
0.003116 0.008647 0.116116 180
0.003542 0.010023 0.131971 175
0.003562 0.010277 0.132736 172
0.003829 0.011258 0.142671 166
0.004283 0.012829 0.159592 158
0.004385 0.013377 0.163392 151
0.004459 0.013849 0.166162 139
0.004459 0.014095 0.166162 130
0.004459 0.014341 0.166162 123
0.004459 0.014587 0.166162 115
0.004459 0.014833 0.166162 108
0.004459 0.015079 0.166162 110
0.004459 0.015325 0.166162 123
0.004385 0.015312 0.163392 138
0.004333 0.015371 0.161470 154
0.004333 0.015610 0.161470 167
0.004354 0.015924 0.162233 176
0.004354 0.016164 0.162233 180
0.004354 0.016404 0.162233 181
0.004354 0.016644 0.162233 183
0.004354 0.016885 0.162233 183
0.004354 0.017125 0.162233 185
0.004354 0.017365 0.162233 186
0.004354 0.017605 0.162233 187
0.004354 0.017845 0.162233 187
0.004354 0.018085 0.162233 186
0.004354 0.018326 0.162233 186
0.004354 0.018566 0.162233 187
0.004364 0.018851 0.162618 190
0.004364 0.019091 0.162618 192
0.004364 0.019332 0.162618 191
0.004364 0.019573 0.162618 190
0.004364 0.019814 0.162618 191
0.004364 0.020054 0.162618 192
0.004364 0.020295 0.162618 190
0.004375 0.020585 0.163004 188
0.004375 0.020826 0.163004 187
0.004375 0.021067 0.163004 186
0.004385 0.021359 0.163392 182
0.004416 0.021757 0.164568 176
0.004427 0.022053 0.164963 170
0.004481 0.022569 0.166970 161
0.004536 0.023097 0.169026 148
0.004581 0.023579 0.170708 130
0.005018 0.026105 0.186988 112
0.004991 0.026239 0.185975 96
0.005005 0.026586 0.186480 79
0.005005 0.026862 0.186480 68
0.005005 0.027138 0.186480 61
0.005005 0.027414 0.186480 52
0.005005 0.027690 0.186480 58
0.005018 0.028043 0.186988 82
0.005018 0.028320 0.186988 101
0.005277 0.030071 0.196632 118
0.004885 0.028107 0.182028 141
0.004859 0.028227 0.181068 152
0.004859 0.028495 0.181068 150
0.004859 0.028763 0.181068 147
0.004859 0.029031 0.181068 146
0.004859 0.029299 0.181068 148
0.004859 0.029567 0.181068 145
0.004859 0.029836 0.181068 144
0.004847 0.030024 0.180591 139
0.004859 0.030372 0.181068 134
0.004859 0.030640 0.181068 126
0.004859 0.030908 0.181068 116
0.004834 0.031012 0.180117 109
0.004821 0.031197 0.179646 104
0.004821 0.031463 0.179646 101
0.004821 0.031729 0.179646 102
0.004821 0.031995 0.179646 102
0.004821 0.032261 0.179646 102
0.004821 0.032527 0.179646 104
0.004821 0.032793 0.179646 106
0.004821 0.033059 0.179646 107
0.004821 0.033325 0.179646 109
0.004821 0.033591 0.179646 112
0.004821 0.033857 0.179646 122
0.004821 0.034123 0.179646 132
0.004847 0.034569 0.180591 141
0.004847 0.034837 0.180591 147
0.004847 0.035104 0.180591 153
0.004847 0.035372 0.180591 157
0.004847 0.035639 0.180591 160
0.004847 0.035906 0.180591 163
0.004847 0.036174 0.180591 165
0.004847 0.036441 0.180591 163
0.004847 0.036708 0.180591 162
0.004847 0.036976 0.180591 160
0.004847 0.037243 0.180591 158
0.004847 0.037510 0.180591 154
0.004859 0.037878 0.181068 149
0.004859 0.038146 0.181068 144
0.004859 0.038414 0.181068 141
0.004859 0.038682 0.181068 135
0.004859 0.038950 0.181068 130
0.004847 0.039115 0.180591 124
0.004847 0.039382 0.180591 119
0.004821 0.039442 0.179646 114
0.004821 0.039708 0.179646 110
0.004771 0.039559 0.177784 104
0.004747 0.039617 0.176868 97
0.004784 0.040190 0.178246 91
0.004911 0.041533 0.182999 85
0.005073 0.043186 0.189049 80
0.008222 0.070437 0.306360 73
0.108334 0.934090 4.036749 64
0.920839 7.990565 34.312370 53
1.841678 16.082728 68.624741 45
1.841678 16.184325 68.624741 42
1.841678 16.285922 68.624741 46
0.003075 -0.012812 0.108583 150
0.003075 -0.012652 0.108583 151
0.003075 -0.012491 0.108583 152
0.003075 -0.012330 0.108583 154
0.003075 -0.012169 0.108583 156
0.003080 -0.012028 0.108756 158
0.003080 -0.011867 0.108756 160
0.003080 -0.011706 0.108756 162
0.003080 -0.011545 0.108756 160
0.003080 -0.011384 0.108756 162
0.003089 -0.011258 0.109101 168
0.003089 -0.011097 0.109101 171
0.003089 -0.010935 0.109101 169
0.003089 -0.010774 0.109101 169
0.003089 -0.010612 0.109101 171
0.003134 -0.010602 0.110685 179
0.003134 -0.010438 0.110685 181
0.003134 -0.010275 0.110685 182
0.003134 -0.010111 0.110685 182
0.003134 -0.009947 0.110685 183
0.003134 -0.009783 0.110685 184
0.003134 -0.009619 0.110685 184
0.003134 -0.009455 0.110685 185
0.003134 -0.009291 0.110685 186
0.003144 -0.009157 0.111043 183
0.003144 -0.008993 0.111043 181
0.003144 -0.008828 0.111043 182
0.003144 -0.008664 0.111043 181
0.003144 -0.008500 0.111043 179
0.003144 -0.008335 0.111043 178
0.003144 -0.008171 0.111043 178
0.003150 -0.008019 0.111223 175
0.003150 -0.007855 0.111223 170
0.003150 -0.007690 0.111223 166
0.003150 -0.007525 0.111223 164
0.003150 -0.007361 0.111223 161
0.003144 -0.007184 0.111043 159
0.003144 -0.007020 0.111043 157
0.003144 -0.006856 0.111043 153
0.003109 -0.006616 0.109800 143
0.003109 -0.006454 0.109800 143
0.003109 -0.006291 0.109800 145
0.003109 -0.006129 0.109800 144
0.003094 -0.005937 0.109275 138
0.003075 -0.005739 0.108583 130
0.003065 -0.005561 0.108241 124
0.003065 -0.005401 0.108241 120
0.003060 -0.005232 0.108070 116
0.003060 -0.005072 0.108070 114
0.003060 -0.004912 0.108070 110
0.003060 -0.004752 0.108070 106
0.003060 -0.004592 0.108070 101
0.003060 -0.004432 0.108070 96
0.003060 -0.004272 0.108070 93
0.003060 -0.004112 0.108070 91
0.003060 -0.003952 0.108070 88
0.003055 -0.003786 0.107901 85
0.003055 -0.003626 0.107901 81
0.003055 -0.003467 0.107901 81
0.003055 -0.003307 0.107901 84
0.003055 -0.003147 0.107901 89
0.003051 -0.002983 0.107731 94
0.003051 -0.002823 0.107731 97
0.003051 -0.002664 0.107731 99
0.003051 -0.002504 0.107731 100
0.003051 -0.002345 0.107731 100
0.003051 -0.002185 0.107731 101
0.003051 -0.002026 0.107731 103
0.003051 -0.001866 0.107731 104
0.003051 -0.001707 0.107731 105
0.003051 -0.001547 0.107731 104
0.003051 -0.001388 0.107731 103
0.003051 -0.001228 0.107731 103
0.003055 -0.001070 0.107901 102
0.003055 -0.000911 0.107901 100
0.003051 -0.000750 0.107731 102
0.003051 -0.000590 0.107731 105
0.003051 -0.000431 0.107731 107
0.003051 -0.000271 0.107731 108
0.003051 -0.000112 0.107731 110
0.003046 0.000048 0.107562 113
0.003041 0.000207 0.107394 116
0.003036 0.000365 0.107226 119
0.003036 0.000524 0.107226 121
0.003036 0.000682 0.107226 123
0.003022 0.000837 0.106726 127
0.002980 0.000982 0.105253 132
0.002971 0.001134 0.104931 135
0.002967 0.001287 0.104771 137
0.002967 0.001442 0.104771 138
0.002967 0.001597 0.104771 140
0.002944 0.001739 0.103977 144
0.002900 0.001865 0.102425 149
0.002858 0.001987 0.100919 155
0.002845 0.002127 0.100475 163
0.002829 0.002262 0.099890 169
0.002812 0.002396 0.099312 175
0.002812 0.002543 0.099312 178
0.002808 0.002687 0.099169 183
0.002808 0.002833 0.099169 186
0.002808 0.002980 0.099169 188
0.002800 0.003118 0.098883 192
0.002800 0.003264 0.098883 191
0.002796 0.003406 0.098741 189
0.002796 0.003552 0.098741 187
0.002796 0.003698 0.098741 186
0.002796 0.003844 0.098741 184
0.002796 0.003991 0.098741 183
0.002796 0.004137 0.098741 183
0.002800 0.004289 0.098883 182
0.002804 0.004442 0.099026 180
0.002812 0.004602 0.099312 178
0.002837 0.004790 0.100182 175
0.002845 0.004953 0.100475 173
0.002849 0.005109 0.100623 172
0.002854 0.005266 0.100771 170
0.002858 0.005423 0.100919 168
0.002858 0.005573 0.100919 166
0.002858 0.005722 0.100919 165
0.002858 0.005872 0.100919 165
0.002985 0.006289 0.105414 173
0.003022 0.006525 0.106726 178
0.003027 0.006694 0.106892 180
0.003032 0.006863 0.107059 182
0.003089 0.007155 0.109101 186
0.003104 0.007352 0.109624 188
0.003104 0.007514 0.109624 188
0.003144 0.007776 0.111043 185
0.003144 0.007940 0.111043 184
0.003160 0.008144 0.111585 182
0.003255 0.008560 0.114949 178
0.003825 0.010259 0.135088 172
0.003856 0.010542 0.136160 168
0.004179 0.011645 0.147580 160
0.004498 0.012770 0.158854 151
0.004638 0.013409 0.163782 141
0.004705 0.013849 0.166162 129
0.004705 0.014095 0.166162 120
0.004705 0.014341 0.166162 114
0.004705 0.014587 0.166162 108
0.004705 0.014833 0.166162 103
0.004705 0.015079 0.166162 100
0.004705 0.015325 0.166162 106
0.004705 0.015571 0.166162 115
0.004705 0.015817 0.166162 130
0.003958 0.013512 0.139765 148
0.004280 0.014837 0.151156 162
0.004572 0.016088 0.161470 173
0.004594 0.016404 0.162233 179
0.004594 0.016644 0.162233 182
0.004594 0.016885 0.162233 181
0.004594 0.017125 0.162233 181
0.004594 0.017365 0.162233 184
0.004594 0.017605 0.162233 187
0.004594 0.017845 0.162233 188
0.004605 0.018128 0.162618 189
0.004605 0.018369 0.162618 188
0.004605 0.018610 0.162618 189
0.004605 0.018851 0.162618 190
0.004605 0.019091 0.162618 192
0.004605 0.019332 0.162618 191
0.004605 0.019573 0.162618 192
0.004605 0.019814 0.162618 193
0.004605 0.020054 0.162618 193
0.004605 0.020295 0.162618 192
0.004605 0.020536 0.162618 190
0.004605 0.020777 0.162618 188
0.004605 0.021017 0.162618 186
0.004638 0.021410 0.163782 181
0.004660 0.021757 0.164568 175
0.004717 0.022267 0.166565 165
0.004786 0.022847 0.169026 152
0.004810 0.023211 0.169863 136
0.005281 0.025758 0.186480 116
0.005295 0.026105 0.186988 98
0.005281 0.026310 0.186480 84
0.005281 0.026586 0.186480 74
0.005281 0.026862 0.186480 64
0.005281 0.027138 0.186480 59
0.005281 0.027414 0.186480 55
0.005281 0.027690 0.186480 62
0.005295 0.028043 0.186988 85
0.005295 0.028320 0.186988 107
0.005552 0.029985 0.196071 119
0.005155 0.028107 0.182028 136
0.005127 0.028227 0.181068 146
0.005127 0.028495 0.181068 149
0.005127 0.028763 0.181068 149
0.005127 0.029031 0.181068 147
0.005127 0.029299 0.181068 146
0.005127 0.029567 0.181068 142
0.005127 0.029836 0.181068 138
0.005127 0.030104 0.181068 134
0.005127 0.030372 0.181068 130
0.005127 0.030640 0.181068 124
0.005127 0.030908 0.181068 114
0.005100 0.031012 0.180117 105
0.005087 0.031197 0.179646 100
0.005087 0.031463 0.179646 96
0.005087 0.031729 0.179646 96
0.005087 0.031995 0.179646 97
0.005087 0.032261 0.179646 99
0.005087 0.032527 0.179646 102
0.005087 0.032793 0.179646 104
0.005087 0.033059 0.179646 106
0.005087 0.033325 0.179646 110
0.005074 0.033503 0.179177 115
0.005087 0.033857 0.179646 122
0.005087 0.034123 0.179646 132
0.005114 0.034569 0.180591 143
0.005114 0.034837 0.180591 149
0.005114 0.035104 0.180591 155
0.005114 0.035372 0.180591 159
0.005114 0.035639 0.180591 161
0.005114 0.035906 0.180591 164
0.005114 0.036174 0.180591 165
0.005114 0.036441 0.180591 163
0.005114 0.036708 0.180591 162
0.005114 0.036976 0.180591 161
0.005114 0.037243 0.180591 158
0.005114 0.037510 0.180591 154
0.005127 0.037878 0.181068 149
0.005127 0.038146 0.181068 145
0.005127 0.038414 0.181068 140
0.005127 0.038682 0.181068 135
0.005127 0.038950 0.181068 130
0.005127 0.039218 0.181068 125
0.005100 0.039279 0.180117 119
0.005087 0.039442 0.179646 114
0.005074 0.039604 0.179177 110
0.005061 0.039765 0.178710 105
0.005021 0.039720 0.177325 98
0.005047 0.040190 0.178246 92
0.005252 0.042094 0.185472 85
0.005428 0.043789 0.191689 80
0.008997 0.073046 0.317707 73
0.138805 1.134252 4.901767 63
0.971638 7.990565 34.312370 53
1.943275 16.082728 68.624741 45
1.943275 16.184325 68.624741 43
1.943275 16.285922 68.624741 46
1.943275 16.387520 68.624741 51
0.003236 -0.012812 0.108583 148
0.003236 -0.012652 0.108583 150
0.003236 -0.012491 0.108583 152
0.003241 -0.012350 0.108756 155
0.003241 -0.012189 0.108756 158
0.003241 -0.012028 0.108756 160
0.003241 -0.011867 0.108756 162
0.003246 -0.011724 0.108928 163
0.003246 -0.011563 0.108928 160
0.003246 -0.011402 0.108928 161
0.003261 -0.011294 0.109449 166
0.003261 -0.011132 0.109449 169
0.003261 -0.010970 0.109449 168
0.003261 -0.010808 0.109449 168
0.003261 -0.010646 0.109449 171
0.003293 -0.010585 0.110507 176
0.003298 -0.010438 0.110685 178
0.003298 -0.010275 0.110685 179
0.003298 -0.010111 0.110685 179
0.003298 -0.009947 0.110685 180
0.003298 -0.009783 0.110685 180
0.003298 -0.009619 0.110685 181
0.003298 -0.009455 0.110685 181
0.003304 -0.009306 0.110864 183
0.003314 -0.009172 0.111223 180
0.003314 -0.009007 0.111223 179
0.003314 -0.008843 0.111223 179
0.003314 -0.008678 0.111223 179
0.003314 -0.008513 0.111223 177
0.003314 -0.008349 0.111223 175
0.003314 -0.008184 0.111223 175
0.003314 -0.008019 0.111223 173
0.003314 -0.007855 0.111223 168
0.003314 -0.007690 0.111223 164
0.003314 -0.007525 0.111223 162
0.003314 -0.007361 0.111223 159
0.003314 -0.007196 0.111223 158
0.003314 -0.007031 0.111223 157
0.003309 -0.006856 0.111043 154
0.003267 -0.006606 0.109624 146
0.003267 -0.006443 0.109624 144
0.003267 -0.006281 0.109624 143
0.003267 -0.006119 0.109624 141
0.003256 -0.005937 0.109275 136
0.003230 -0.005730 0.108412 130
0.003230 -0.005570 0.108412 126
0.003225 -0.005401 0.108241 122
0.003220 -0.005232 0.108070 118
0.003220 -0.005072 0.108070 116
0.003220 -0.004912 0.108070 113
0.003220 -0.004752 0.108070 109
0.003220 -0.004592 0.108070 103
0.003215 -0.004425 0.107901 97
0.003215 -0.004265 0.107901 93
0.003215 -0.004106 0.107901 89
0.003215 -0.003946 0.107901 89
0.003215 -0.003786 0.107901 86
0.003215 -0.003626 0.107901 83
0.003215 -0.003467 0.107901 83
0.003215 -0.003307 0.107901 86
0.003215 -0.003147 0.107901 90
0.003210 -0.002983 0.107731 94
0.003210 -0.002823 0.107731 96
0.003210 -0.002664 0.107731 98
0.003210 -0.002504 0.107731 100
0.003210 -0.002345 0.107731 101
0.003210 -0.002185 0.107731 102
0.003210 -0.002026 0.107731 104
0.003215 -0.001869 0.107901 105
0.003215 -0.001709 0.107901 106
0.003215 -0.001550 0.107901 106
0.003215 -0.001390 0.107901 104
0.003215 -0.001230 0.107901 105
0.003215 -0.001070 0.107901 104
0.003215 -0.000911 0.107901 104
0.003215 -0.000751 0.107901 107
0.003215 -0.000591 0.107901 110
0.003215 -0.000431 0.107901 113
0.003215 -0.000272 0.107901 114
0.003210 -0.000112 0.107731 118
0.003210 0.000048 0.107731 120
0.003210 0.000207 0.107731 122
0.003205 0.000366 0.107562 125
0.003200 0.000524 0.107394 129
0.003195 0.000682 0.107226 132
0.003190 0.000840 0.107059 135
0.003180 0.000995 0.106726 138
0.003180 0.001153 0.106726 139
0.003180 0.001311 0.106726 140
0.003180 0.001469 0.106726 141
0.003180 0.001627 0.106726 143
0.003122 0.001753 0.104771 149
0.003103 0.001896 0.104135 155
0.003108 0.002053 0.104293 162
0.003080 0.002188 0.103351 169
0.003025 0.002299 0.101516 176
0.002998 0.002428 0.100623 181
0.002994 0.002573 0.100475 184
0.002977 0.002706 0.099890 188
0.002972 0.002850 0.099745 190
0.002972 0.002998 0.099745 191
0.002959 0.003132 0.099312 194
0.002959 0.003279 0.099312 193
0.002951 0.003416 0.099026 191
0.002947 0.003557 0.098883 189
0.002947 0.003704 0.098883 187
0.002942 0.003844 0.098741 185
0.002942 0.003991 0.098741 183
0.002942 0.004137 0.098741 183
0.002942 0.004283 0.098741 182
0.002947 0.004436 0.098883 180
0.002947 0.004582 0.098883 179
0.002998 0.004812 0.100623 175
0.003007 0.004975 0.100919 173
0.003007 0.005125 0.100919 173
0.003007 0.005274 0.100919 173
0.003007 0.005423 0.100919 172
0.003012 0.005581 0.101067 170
0.003016 0.005739 0.101216 167
0.003016 0.005889 0.101216 167
0.003122 0.006251 0.104771 175
0.003210 0.006587 0.107731 181
0.003215 0.006757 0.107901 182
0.003215 0.006917 0.107901 183
0.003225 0.007099 0.108241 185
0.003230 0.007271 0.108412 186
0.003230 0.007431 0.108412 185
0.003236 0.007604 0.108583 184
0.003246 0.007789 0.108928 182
0.003277 0.008027 0.109976 179
0.003369 0.008419 0.113056 175
0.003917 0.009984 0.131465 169
0.004049 0.010522 0.135891 163
0.004475 0.011849 0.150164 153
0.004744 0.012800 0.159222 143
0.004939 0.013571 0.165760 129
0.004951 0.013849 0.166162 118
0.004951 0.014095 0.166162 111
0.004951 0.014341 0.166162 104
0.004951 0.014587 0.166162 100
0.004951 0.014833 0.166162 97
0.004951 0.015079 0.166162 93
0.004951 0.015325 0.166162 94
0.004951 0.015571 0.166162 94
0.004963 0.015856 0.166565 107
0.004823 0.015647 0.161851 126
0.003665 0.012071 0.122983 143
0.004388 0.014672 0.147263 159
0.004789 0.016251 0.160714 171
0.004834 0.016644 0.162233 177
0.004834 0.016885 0.162233 179
0.004834 0.017125 0.162233 181
0.004834 0.017365 0.162233 184
0.004834 0.017605 0.162233 188
0.004834 0.017845 0.162233 189
0.004834 0.018085 0.162233 190
0.004834 0.018326 0.162233 189
0.004834 0.018566 0.162233 188
0.004846 0.018851 0.162618 189
0.004846 0.019091 0.162618 190
0.004846 0.019332 0.162618 191
0.004846 0.019573 0.162618 192
0.004846 0.019814 0.162618 193
0.004846 0.020054 0.162618 194
0.004846 0.020295 0.162618 193
0.004846 0.020536 0.162618 191
0.004846 0.020777 0.162618 188
0.004857 0.021067 0.163004 186
0.004869 0.021359 0.163392 181
0.004916 0.021809 0.164963 172
0.004987 0.022376 0.167377 159
0.005049 0.022903 0.169444 141
0.005557 0.025482 0.186480 124
0.005557 0.025758 0.186480 105
0.005572 0.026105 0.186988 89
0.005557 0.026310 0.186480 78
0.005557 0.026586 0.186480 69
0.005557 0.026862 0.186480 59
0.005557 0.027138 0.186480 54
0.005557 0.027414 0.186480 55
0.005557 0.027690 0.186480 68
0.005572 0.028043 0.186988 92
0.005572 0.028320 0.186988 112
0.005664 0.029072 0.190096 122
0.005410 0.028033 0.181547 137
0.005410 0.028302 0.181547 145
0.005410 0.028571 0.181547 148
0.005410 0.028839 0.181547 150
0.005410 0.029108 0.181547 149
0.005410 0.029377 0.181547 145
0.005410 0.029646 0.181547 140
0.005395 0.029836 0.181068 132
0.005395 0.030104 0.181068 127
0.005395 0.030372 0.181068 123
0.005395 0.030640 0.181068 117
0.005381 0.030826 0.180591 108
0.005367 0.031012 0.180117 101
0.005353 0.031197 0.179646 96
0.005353 0.031463 0.179646 92
0.005353 0.031729 0.179646 92
0.005353 0.031995 0.179646 94
0.005353 0.032261 0.179646 98
0.005353 0.032527 0.179646 101
0.005353 0.032793 0.179646 104
0.005353 0.033059 0.179646 106
0.005339 0.033238 0.179177 111
0.005339 0.033503 0.179177 117
0.005353 0.033857 0.179646 123
0.005353 0.034123 0.179646 134
0.005381 0.034569 0.180591 145
0.005381 0.034837 0.180591 153
0.005381 0.035104 0.180591 159
0.005381 0.035372 0.180591 161
0.005381 0.035639 0.180591 161
0.005381 0.035906 0.180591 163
0.005381 0.036174 0.180591 163
0.005381 0.036441 0.180591 162
0.005381 0.036708 0.180591 161
0.005381 0.036976 0.180591 160
0.005381 0.037243 0.180591 157
0.005381 0.037510 0.180591 153
0.005381 0.037778 0.180591 149
0.005381 0.038045 0.180591 145
0.005395 0.038414 0.181068 139
0.005395 0.038682 0.181068 134
0.005395 0.038950 0.181068 130
0.005395 0.039218 0.181068 125
0.005367 0.039279 0.180117 119
0.005353 0.039442 0.179646 114
0.005339 0.039604 0.179177 110
0.005311 0.039662 0.178246 105
0.005298 0.039823 0.177784 99
0.005325 0.040295 0.178710 92
0.005410 0.041203 0.181547 85
0.005910 0.045307 0.198337 78
0.012545 0.096797 0.421011 70
0.146062 1.134252 4.901767 61
1.022436 7.990565 34.312370 52
2.044872 16.082728 68.624741 45
2.044872 16.184325 68.624741 43
2.044872 16.285922 68.624741 46
2.044872 16.387520 68.624741 50
0.003402 -0.012833 0.108756 144
0.003418 -0.012732 0.109275 149
0.003423 -0.012590 0.109449 153
0.003423 -0.012428 0.109449 156
0.003429 -0.012286 0.109624 158
0.003429 -0.012124 0.109624 160
0.003429 -0.011961 0.109624 162
0.003429 -0.011799 0.109624 163
0.003434 -0.011655 0.109800 165
0.003434 -0.011493 0.109800 166
0.003434 -0.011330 0.109800 166
0.003440 -0.011186 0.109976 168
0.003445 -0.011041 0.110152 171
0.003451 -0.010895 0.110329 173
0.003451 -0.010732 0.110329 174
0.003456 -0.010585 0.110507 175
0.003456 -0.010422 0.110507 177
0.003462 -0.010275 0.110685 178
0.003462 -0.010111 0.110685 178
0.003462 -0.009947 0.110685 179
0.003462 -0.009783 0.110685 179
0.003462 -0.009619 0.110685 179
0.003462 -0.009455 0.110685 179
0.003468 -0.009306 0.110864 179
0.003473 -0.009157 0.111043 177
0.003473 -0.008993 0.111043 176
0.003473 -0.008828 0.111043 176
0.003473 -0.008664 0.111043 176
0.003473 -0.008500 0.111043 175
0.003473 -0.008335 0.111043 173
0.003473 -0.008171 0.111043 172
0.003479 -0.008019 0.111223 169
0.003479 -0.007855 0.111223 164
0.003473 -0.007678 0.111043 161
0.003473 -0.007513 0.111043 160
0.003473 -0.007349 0.111043 158
0.003473 -0.007184 0.111043 158
0.003473 -0.007020 0.111043 157
0.003473 -0.006856 0.111043 155
0.003456 -0.006659 0.110507 151
0.003445 -0.006474 0.110152 147
0.003423 -0.006271 0.109449 142
0.003418 -0.006099 0.109275 138
0.003407 -0.005919 0.108928 134
0.003402 -0.005748 0.108756 131
0.003402 -0.005587 0.108756 128
0.003391 -0.005409 0.108412 124
0.003380 -0.005232 0.108070 119
0.003380 -0.005072 0.108070 117
0.003380 -0.004912 0.108070 115
0.003380 -0.004752 0.108070 112
0.003380 -0.004592 0.108070 107
0.003380 -0.004432 0.108070 100
0.003375 -0.004265 0.107901 94
0.003375 -0.004106 0.107901 89
0.003375 -0.003946 0.107901 89
0.003375 -0.003786 0.107901 87
0.003375 -0.003626 0.107901 84
0.003375 -0.003467 0.107901 84
0.003375 -0.003307 0.107901 87
0.003375 -0.003147 0.107901 90
0.003370 -0.002983 0.107731 93
0.003370 -0.002823 0.107731 94
0.003370 -0.002664 0.107731 98
0.003370 -0.002504 0.107731 100
0.003370 -0.002345 0.107731 103
0.003370 -0.002185 0.107731 105
0.003375 -0.002029 0.107901 106
0.003375 -0.001869 0.107901 106
0.003375 -0.001709 0.107901 107
0.003375 -0.001550 0.107901 107
0.003375 -0.001390 0.107901 106
0.003375 -0.001230 0.107901 107
0.003375 -0.001070 0.107901 107
0.003375 -0.000911 0.107901 109
0.003375 -0.000751 0.107901 112
0.003375 -0.000591 0.107901 115
0.003375 -0.000431 0.107901 118
0.003370 -0.000271 0.107731 120
0.003370 -0.000112 0.107731 124
0.003370 0.000048 0.107731 125
0.003370 0.000207 0.107731 127
0.003370 0.000367 0.107731 129
0.003359 0.000524 0.107394 133
0.003359 0.000683 0.107394 136
0.003354 0.000841 0.107226 138
0.003354 0.001000 0.107226 139
0.003354 0.001159 0.107226 139
0.003349 0.001315 0.107059 142
0.003349 0.001474 0.107059 144
0.003338 0.001627 0.106726 149
0.003312 0.001771 0.105902 155
0.003297 0.001919 0.105414 161
0.003287 0.002069 0.105091 167
0.003252 0.002201 0.103977 173
0.003199 0.002316 0.102272 179
0.003157 0.002435 0.100919 184
0.003152 0.002581 0.100771 187
0.003120 0.002702 0.099745 191
0.003120 0.002850 0.099745 192
0.003120 0.002998 0.099745 191
0.003115 0.003141 0.099600 193
0.003111 0.003283 0.099456 192
0.003106 0.003426 0.099312 190
0.003102 0.003567 0.099169 189
0.003102 0.003714 0.099169 188
0.003097 0.003856 0.099026 186
0.003097 0.004002 0.099026 184
0.003097 0.004149 0.099026 184
0.003097 0.004295 0.099026 184
0.003097 0.004442 0.099026 183
0.003102 0.004595 0.099169 181
0.003152 0.004819 0.100771 177
0.003157 0.004975 0.100919 175
0.003157 0.005125 0.100919 175
0.003161 0.005282 0.101067 176
0.003161 0.005431 0.101067 175
0.003161 0.005581 0.101067 173
0.003166 0.005739 0.101216 170
0.003166 0.005889 0.101216 170
0.003267 0.006232 0.104452 176
0.003302 0.006455 0.105577 180
0.003302 0.006611 0.105577 181
0.003302 0.006768 0.105577 182
0.003302 0.006924 0.105577 182
0.003307 0.007091 0.105739 181
0.003307 0.007248 0.105739 181
0.003307 0.007404 0.105739 182
0.003333 0.007620 0.106560 179
0.003354 0.007826 0.107226 176
0.003519 0.008377 0.112500 171
0.003997 0.009705 0.127793 165
0.004234 0.010480 0.135355 158
0.004697 0.011849 0.150164 147
0.004980 0.012800 0.159222 135
0.005185 0.013571 0.165760 122
0.005197 0.013849 0.166162 110
0.005185 0.014061 0.165760 100
0.005197 0.014341 0.166162 92
0.005197 0.014587 0.166162 86
0.005197 0.014833 0.166162 84
0.005197 0.015079 0.166162 82
0.005197 0.015325 0.166162 83
0.005197 0.015571 0.166162 83
0.005197 0.015817 0.166162 93
0.002866 0.008857 0.091622 111
0.002965 0.009304 0.094786 127
0.003175 0.010114 0.101516 142
0.004276 0.013823 0.136703 158
0.004867 0.015965 0.155612 168
0.005074 0.016885 0.162233 176
0.005074 0.017125 0.162233 181
0.005074 0.017365 0.162233 185
0.005074 0.017605 0.162233 188
0.005074 0.017845 0.162233 188
0.005074 0.018085 0.162233 187
0.005074 0.018326 0.162233 186
0.005074 0.018566 0.162233 186
0.005074 0.018806 0.162233 187
0.005074 0.019046 0.162233 188
0.005074 0.019286 0.162233 189
0.005074 0.019527 0.162233 191
0.005074 0.019767 0.162233 192
0.005074 0.020007 0.162233 193
0.005086 0.020295 0.162618 193
0.005086 0.020536 0.162618 191
0.005086 0.020777 0.162618 188
0.005086 0.021017 0.162618 186
0.005135 0.021462 0.164174 178
0.005210 0.022021 0.166565 166
0.005261 0.022486 0.168198 149
0.005833 0.025206 0.186480 130
0.005833 0.025482 0.186480 113
0.005833 0.025758 0.186480 97
0.005849 0.026105 0.186988 84
0.005833 0.026310 0.186480 76
0.005833 0.026586 0.186480 66
0.005833 0.026862 0.186480 57
0.005833 0.027138 0.186480 52
0.005833 0.027414 0.186480 55
0.005849 0.027766 0.186988 75
0.005849 0.028043 0.186988 98
0.005849 0.028320 0.186988 106
0.005946 0.029072 0.190096 127
0.005694 0.028107 0.182028 145
0.005678 0.028302 0.181547 151
0.005678 0.028571 0.181547 148
0.005678 0.028839 0.181547 147
0.005678 0.029108 0.181547 147
0.005678 0.029377 0.181547 145
0.005678 0.029646 0.181547 139
0.005649 0.029757 0.180591 131
0.005649 0.030024 0.180591 124
0.005575 0.029898 0.178246 116
0.005619 0.030399 0.179646 110
0.005619 0.030665 0.179646 103
0.005619 0.030931 0.179646 97
0.005619 0.031197 0.179646 93
0.005619 0.031463 0.179646 90
0.005619 0.031729 0.179646 89
0.005619 0.031995 0.179646 92
0.005619 0.032261 0.179646 96
0.005619 0.032527 0.179646 99
0.005619 0.032793 0.179646 102
0.005619 0.033059 0.179646 104
0.005604 0.033238 0.179177 111
0.005604 0.033503 0.179177 118
0.005604 0.033768 0.179177 126
0.005619 0.034123 0.179646 136
0.005634 0.034479 0.180117 148
0.005649 0.034837 0.180591 156
0.005649 0.035104 0.180591 161
0.005649 0.035372 0.180591 162
0.005649 0.035639 0.180591 160
0.005649 0.035906 0.180591 160
0.005649 0.036174 0.180591 161
0.005649 0.036441 0.180591 161
0.005649 0.036708 0.180591 161
0.005649 0.036976 0.180591 159
0.005649 0.037243 0.180591 156
0.005649 0.037510 0.180591 152
0.005649 0.037778 0.180591 148
0.005649 0.038045 0.180591 144
0.005664 0.038414 0.181068 139
0.005664 0.038682 0.181068 133
0.005649 0.038847 0.180591 128
0.005649 0.039115 0.180591 124
0.005649 0.039382 0.180591 119
0.005634 0.039545 0.180117 114
0.005604 0.039604 0.179177 109
0.005575 0.039662 0.178246 104
0.005561 0.039823 0.177784 98
0.005575 0.040190 0.178246 92
0.005649 0.040986 0.180591 85
0.006258 0.045704 0.200072 77
0.014906 0.109569 0.476561 68
0.165113 1.221503 5.278826 59
1.073235 7.990565 34.312370 51
2.146470 16.082728 68.624741 45
2.146470 16.184325 68.624741 41
2.146470 16.285922 68.624741 44
2.146470 16.387520 68.624741 48
0.003546 -0.012772 0.108241 141
0.003580 -0.012732 0.109275 148
0.003585 -0.012590 0.109449 152
0.003585 -0.012428 0.109449 155
0.003585 -0.012266 0.109449 157
0.003585 -0.012104 0.109449 159
0.003591 -0.011961 0.109624 161
0.003591 -0.011799 0.109624 163
0.003597 -0.011655 0.109800 166
0.003597 -0.011493 0.109800 167
0.003597 -0.011330 0.109800 167
0.003603 -0.011186 0.109976 168
0.003608 -0.011041 0.110152 171
0.003620 -0.010912 0.110507 174
0.003620 -0.010749 0.110507 174
0.003626 -0.010602 0.110685 175
0.003626 -0.010438 0.110685 176
0.003626 -0.010275 0.110685 177
0.003626 -0.010111 0.110685 177
0.003632 -0.009963 0.110864 178
0.003632 -0.009799 0.110864 178
0.003632 -0.009635 0.110864 177
0.003632 -0.009471 0.110864 176
0.003638 -0.009321 0.111043 175
0.003638 -0.009157 0.111043 175
0.003638 -0.008993 0.111043 174
0.003638 -0.008828 0.111043 173
0.003644 -0.008678 0.111223 174
0.003644 -0.008513 0.111223 174
0.003644 -0.008349 0.111223 173
0.003644 -0.008184 0.111223 171
0.003644 -0.008019 0.111223 167
0.003644 -0.007855 0.111223 162
0.003638 -0.007678 0.111043 159
0.003638 -0.007513 0.111043 159
0.003638 -0.007349 0.111043 157
0.003638 -0.007184 0.111043 157
0.003638 -0.007020 0.111043 155
0.003626 -0.006833 0.110685 152
0.003620 -0.006659 0.110507 149
0.003620 -0.006495 0.110507 146
0.003608 -0.006311 0.110152 142
0.003580 -0.006099 0.109275 137
0.003574 -0.005928 0.109101 133
0.003574 -0.005767 0.109101 132
0.003574 -0.005605 0.109101 130
0.003540 -0.005392 0.108070 124
0.003540 -0.005232 0.108070 121
0.003540 -0.005072 0.108070 117
0.003540 -0.004912 0.108070 114
0.003540 -0.004752 0.108070 112
0.003540 -0.004592 0.108070 109
0.003535 -0.004425 0.107901 104
0.003535 -0.004265 0.107901 98
0.003529 -0.004099 0.107731 94
0.003529 -0.003940 0.107731 93
0.003529 -0.003780 0.107731 91
0.003529 -0.003621 0.107731 90
0.003529 -0.003461 0.107731 89
0.003529 -0.003302 0.107731 91
0.003529 -0.003142 0.107731 94
0.003529 -0.002983 0.107731 95
0.003529 -0.002823 0.107731 96
0.003529 -0.002664 0.107731 98
0.003529 -0.002504 0.107731 102
0.003529 -0.002345 0.107731 106
0.003535 -0.002189 0.107901 108
0.003535 -0.002029 0.107901 108
0.003535 -0.001869 0.107901 108
0.003535 -0.001709 0.107901 108
0.003535 -0.001550 0.107901 109
0.003535 -0.001390 0.107901 110
0.003535 -0.001230 0.107901 110
0.003535 -0.001070 0.107901 110
0.003535 -0.000911 0.107901 113
0.003535 -0.000751 0.107901 116
0.003535 -0.000591 0.107901 118
0.003535 -0.000431 0.107901 120
0.003529 -0.000271 0.107731 123
0.003529 -0.000112 0.107731 126
0.003529 0.000048 0.107731 128
0.003529 0.000207 0.107731 129
0.003529 0.000367 0.107731 132
0.003524 0.000525 0.107562 135
0.003524 0.000685 0.107562 137
0.003524 0.000844 0.107562 137
0.003524 0.001003 0.107562 138
0.003524 0.001162 0.107562 139
0.003496 0.001311 0.106726 144
0.003491 0.001467 0.106560 149
0.003496 0.001627 0.106726 155
0.003480 0.001777 0.106230 162
0.003475 0.001931 0.106066 167
0.003464 0.002082 0.105739 172
0.003365 0.002175 0.102732 179
0.003360 0.002323 0.102578 182
0.003311 0.002439 0.101067 187
0.003311 0.002588 0.101067 189
0.003277 0.002710 0.100036 193
0.003277 0.002858 0.100036 193
0.003272 0.003002 0.099890 191
0.003272 0.003150 0.099890 191
0.003272 0.003298 0.099890 190
0.003268 0.003441 0.099745 190
0.003268 0.003588 0.099745 189
0.003268 0.003736 0.099745 188
0.003263 0.003878 0.099600 186
0.003263 0.004025 0.099600 185
0.003263 0.004173 0.099600 186
0.003263 0.004320 0.099600 187
0.003268 0.004474 0.099745 186
0.003268 0.004622 0.099745 185
0.003291 0.004804 0.100475 182
0.003316 0.004990 0.101216 179
0.003316 0.005140 0.101216 179
0.003316 0.005289 0.101216 178
0.003321 0.005447 0.101366 177
0.003321 0.005597 0.101366 176
0.003321 0.005747 0.101366 175
0.003326 0.005906 0.101516 177
0.003340 0.006084 0.101968 180
0.003360 0.006272 0.102578 183
0.003365 0.006433 0.102732 185
0.003370 0.006595 0.102886 186
0.003370 0.006748 0.102886 185
0.003375 0.006910 0.103040 183
0.003381 0.007073 0.103195 181
0.003386 0.007237 0.103351 180
0.003396 0.007412 0.103663 177
0.003427 0.007635 0.104611 173
0.003591 0.008163 0.109624 167
0.004080 0.009459 0.124546 160
0.004298 0.010159 0.131214 152
0.004340 0.010454 0.132480 140
0.005192 0.012740 0.158487 127
0.005430 0.013571 0.165760 112
0.005443 0.013849 0.166162 92
0.005443 0.014095 0.166162 77
0.005443 0.014341 0.166162 69
0.005443 0.014587 0.166162 67
0.005443 0.014833 0.166162 68
0.005443 0.015079 0.166162 69
0.005443 0.015325 0.166162 74
0.005443 0.015571 0.166162 78
0.005443 0.015817 0.166162 84
0.003038 0.008965 0.092736 102
0.003350 0.010038 0.102272 118
0.003836 0.011668 0.117107 132
0.003778 0.011662 0.115336 146
0.004425 0.013859 0.135088 157
0.005052 0.016050 0.154213 167
0.005290 0.017044 0.161470 176
0.005302 0.017324 0.161851 182
0.005315 0.017605 0.162233 187
0.005315 0.017845 0.162233 188
0.005315 0.018085 0.162233 186
0.005315 0.018326 0.162233 184
0.005315 0.018566 0.162233 184
0.005315 0.018806 0.162233 186
0.005315 0.019046 0.162233 188
0.005315 0.019286 0.162233 189
0.005315 0.019527 0.162233 190
0.005315 0.019767 0.162233 191
0.005315 0.020007 0.162233 192
0.005315 0.020247 0.162233 193
0.005327 0.020536 0.162618 190
0.005327 0.020777 0.162618 188
0.005340 0.021067 0.163004 183
0.005417 0.021617 0.165361 172
0.005483 0.022128 0.167377 156
0.006092 0.024862 0.185975 137
0.006126 0.025274 0.186988 118
0.006109 0.025482 0.186480 103
0.006109 0.025758 0.186480 91
0.006126 0.026105 0.186988 81
0.006109 0.026310 0.186480 73
0.006109 0.026586 0.186480 63
0.006109 0.026862 0.186480 55
0.006109 0.027138 0.186480 52
0.006109 0.027414 0.186480 60
0.006126 0.027766 0.186988 79
0.006126 0.028043 0.186988 98
0.006126 0.028320 0.186988 104
0.006159 0.028753 0.188013 130
0.005947 0.028033 0.181547 146
0.005947 0.028302 0.181547 151
0.005947 0.028571 0.181547 148
0.005947 0.028839 0.181547 145
0.005947 0.029108 0.181547 144
0.005947 0.029377 0.181547 143
0.005947 0.029646 0.181547 139
0.005916 0.029757 0.180591 132
0.005916 0.030024 0.180591 122
0.005809 0.029744 0.177325 112
0.005885 0.030399 0.179646 105
0.005885 0.030665 0.179646 100
0.005885 0.030931 0.179646 95
0.005885 0.031197 0.179646 91
0.005870 0.031381 0.179177 87
0.005870 0.031646 0.179177 86
0.005870 0.031911 0.179177 89
0.005870 0.032177 0.179177 93
0.005854 0.032357 0.178710 96
0.005854 0.032622 0.178710 98
0.005870 0.032972 0.179177 102
0.005870 0.033238 0.179177 110
0.005870 0.033503 0.179177 119
0.005870 0.033768 0.179177 127
0.005885 0.034123 0.179646 137
0.005900 0.034479 0.180117 147
0.005916 0.034837 0.180591 155
0.005916 0.035104 0.180591 161
0.005916 0.035372 0.180591 161
0.005916 0.035639 0.180591 160
0.005916 0.035906 0.180591 160
0.005916 0.036174 0.180591 160
0.005916 0.036441 0.180591 160
0.005916 0.036708 0.180591 161
0.005916 0.036976 0.180591 159
0.005916 0.037243 0.180591 154
0.005916 0.037510 0.180591 150
0.005916 0.037778 0.180591 146
0.005916 0.038045 0.180591 144
0.005932 0.038414 0.181068 139
0.005932 0.038682 0.181068 132
0.005916 0.038847 0.180591 127
0.005916 0.039115 0.180591 123
0.005916 0.039382 0.180591 118
0.005885 0.039442 0.179646 113
0.005870 0.039604 0.179177 108
0.005839 0.039662 0.178246 103
0.005809 0.039720 0.177325 96
0.005839 0.040190 0.178246 90
0.005979 0.041422 0.182513 83
0.006297 0.043911 0.192226 77
0.013543 0.095048 0.413402 69
0.160576 1.134252 4.901767 60
1.124033 7.990565 34.312370 51
2.248067 16.082728 68.624741 44
2.248067 16.184325 68.624741 40
2.248067 16.285922 68.624741 42
2.248067 16.387520 68.624741 45
2.248067 16.489117 68.624741 50
0.003706 -0.012772 0.108241 142
0.003742 -0.012732 0.109275 149
0.003742 -0.012570 0.109275 152
0.003742 -0.012409 0.109275 154
0.003747 -0.012266 0.109449 157
0.003759 -0.012143 0.109800 161
0.003759 -0.011981 0.109800 163
0.003759 -0.011818 0.109800 162
0.003759 -0.011655 0.109800 163
0.003765 -0.011511 0.109976 165
0.003765 -0.011348 0.109976 167
0.003765 -0.011186 0.109976 167
0.003765 -0.011023 0.109976 167
0.003772 -0.010877 0.110152 169
0.003772 -0.010714 0.110152 171
0.003790 -0.010602 0.110685 174
0.003790 -0.010438 0.110685 175
0.003790 -0.010275 0.110685 175
0.003790 -0.010111 0.110685 175
0.003790 -0.009947 0.110685 176
0.003796 -0.009799 0.110864 175
0.003802 -0.009650 0.111043 173
0.003808 -0.009501 0.111223 171
0.003808 -0.009337 0.111223 173
0.003808 -0.009172 0.111223 173
0.003814 -0.009022 0.111404 172
0.003814 -0.008857 0.111404 171
0.003814 -0.008692 0.111404 172
0.003814 -0.008527 0.111404 174
0.003814 -0.008362 0.111404 173
0.003814 -0.008197 0.111404 171
0.003814 -0.008032 0.111404 168
0.003814 -0.007867 0.111404 162
0.003808 -0.007690 0.111223 159
0.003808 -0.007525 0.111223 159
0.003808 -0.007361 0.111223 157
0.003808 -0.007196 0.111223 155
0.003802 -0.007020 0.111043 152
0.003796 -0.006844 0.110864 149
0.003765 -0.006627 0.109976 144
0.003765 -0.006464 0.109976 143
0.003765 -0.006301 0.109976 141
0.003753 -0.006119 0.109624 137
0.003747 -0.005947 0.109449 134
0.003747 -0.005785 0.109449 134
0.003747 -0.005623 0.109449 131
0.003700 -0.005392 0.108070 123
0.003700 -0.005232 0.108070 122
0.003700 -0.005072 0.108070 117
0.003694 -0.004904 0.107901 113
0.003694 -0.004745 0.107901 111
0.003694 -0.004585 0.107901 110
0.003694 -0.004425 0.107901 107
0.003694 -0.004265 0.107901 103
0.003694 -0.004106 0.107901 99
0.003689 -0.003940 0.107731 94
0.003689 -0.003780 0.107731 93
0.003689 -0.003621 0.107731 91
0.003689 -0.003461 0.107731 91
0.003689 -0.003302 0.107731 92
0.003689 -0.003142 0.107731 94
0.003689 -0.002983 0.107731 96
0.003689 -0.002823 0.107731 97
0.003689 -0.002664 0.107731 99
0.003689 -0.002504 0.107731 103
0.003694 -0.002348 0.107901 108
0.003694 -0.002189 0.107901 110
0.003694 -0.002029 0.107901 110
0.003694 -0.001869 0.107901 109
0.003694 -0.001709 0.107901 109
0.003694 -0.001550 0.107901 110
0.003694 -0.001390 0.107901 112
0.003694 -0.001230 0.107901 111
0.003694 -0.001070 0.107901 112
0.003694 -0.000911 0.107901 116
0.003694 -0.000751 0.107901 118
0.003694 -0.000591 0.107901 119
0.003694 -0.000431 0.107901 121
0.003694 -0.000272 0.107901 124
0.003689 -0.000112 0.107731 128
0.003689 0.000048 0.107731 130
0.003689 0.000207 0.107731 132
0.003689 0.000367 0.107731 134
0.003689 0.000526 0.107731 137
0.003689 0.000686 0.107731 138
0.003689 0.000845 0.107731 138
0.003689 0.001005 0.107731 139
0.003683 0.001162 0.107562 142
0.003649 0.001309 0.106560 148
0.003643 0.001465 0.106395 155
0.003649 0.001625 0.106560 161
0.003643 0.001780 0.106395 167
0.003637 0.001934 0.106230 172
0.003632 0.002088 0.106066 178
0.003476 0.002149 0.101516 186
0.003476 0.002299 0.101516 187
0.003450 0.002432 0.100771 191
0.003450 0.002581 0.100771 192
0.003445 0.002726 0.100623 194
0.003440 0.002871 0.100475 193
0.003435 0.003015 0.100329 191
0.003430 0.003159 0.100182 192
0.003430 0.003307 0.100182 192
0.003430 0.003456 0.100182 191
0.003425 0.003599 0.100036 190
0.003425 0.003747 0.100036 189
0.003420 0.003889 0.099890 187
0.003420 0.004037 0.099890 186
0.003420 0.004185 0.099890 187
0.003425 0.004339 0.100036 189
0.003430 0.004494 0.100182 188
0.003430 0.004642 0.100182 189
0.003455 0.004826 0.100919 186
0.003460 0.004982 0.101067 184
0.003466 0.005140 0.101216 182
0.003471 0.005297 0.101366 180
0.003476 0.005455 0.101516 178
0.003481 0.005614 0.101666 179
0.003481 0.005765 0.101666 179
0.003491 0.005933 0.101968 182
0.003497 0.006093 0.102120 183
0.003497 0.006244 0.102120 184
0.003507 0.006414 0.102425 187
0.003512 0.006576 0.102578 189
0.003512 0.006727 0.102578 188
0.003539 0.006931 0.103351 184
0.003544 0.007095 0.103506 183
0.003587 0.007337 0.104771 179
0.003620 0.007561 0.105739 175
0.003637 0.007753 0.106230 171
0.003858 0.008391 0.112684 164
0.004296 0.009528 0.125457 157
0.004484 0.010140 0.130963 148
0.004272 0.009845 0.124772 135
0.005414 0.012711 0.158122 121
0.005676 0.013571 0.165760 97
0.005689 0.013849 0.166162 68
0.005689 0.014095 0.166162 49
0.005689 0.014341 0.166162 47
0.005689 0.014587 0.166162 51
0.005689 0.014833 0.166162 57
0.005689 0.015079 0.166162 63
0.005689 0.015325 0.166162 70
0.005689 0.015571 0.166162 76
0.005689 0.015817 0.166162 80
0.003184 0.008989 0.092987 98
0.003517 0.010084 0.102732 115
0.004030 0.011728 0.117710 129
0.004159 0.012281 0.121460 141
0.004303 0.012895 0.125686 148
0.004671 0.014199 0.136431 157
0.005086 0.015679 0.148538 167
0.005503 0.017202 0.160714 177
0.005555 0.017605 0.162233 185
0.005555 0.017845 0.162233 188
0.005555 0.018085 0.162233 186
0.005555 0.018326 0.162233 184
0.005555 0.018566 0.162233 185
0.005555 0.018806 0.162233 187
0.005555 0.019046 0.162233 188
0.005555 0.019286 0.162233 189
0.005555 0.019527 0.162233 190
0.005555 0.019767 0.162233 191
0.005555 0.020007 0.162233 192
0.005555 0.020247 0.162233 193
0.005555 0.020487 0.162233 190
0.005555 0.020727 0.162233 188
0.005621 0.021218 0.164174 179
0.005676 0.021669 0.165760 166
0.005745 0.022182 0.167787 147
0.006402 0.024998 0.186988 127
0.006402 0.025274 0.186988 109
0.006385 0.025482 0.186480 97
0.006385 0.025758 0.186480 86
0.006402 0.026105 0.186988 78
0.006385 0.026310 0.186480 68
0.006385 0.026586 0.186480 61
0.006385 0.026862 0.186480 49
0.006385 0.027138 0.186480 50
0.006385 0.027414 0.186480 65
0.006402 0.027766 0.186988 81
0.006402 0.028043 0.186988 97
0.006402 0.028320 0.186988 115
0.006233 0.027838 0.182028 130
0.006216 0.028033 0.181547 142
0.006216 0.028302 0.181547 147
0.006216 0.028571 0.181547 148
0.006216 0.028839 0.181547 146
0.006216 0.029108 0.181547 142
0.006216 0.029377 0.181547 141
0.006216 0.029646 0.181547 140
0.006183 0.029757 0.180591 132
0.006167 0.029946 0.180117 120
0.006087 0.029821 0.177784 109
0.006135 0.030320 0.179177 103
0.006151 0.030665 0.179646 98
0.006151 0.030931 0.179646 93
0.006135 0.031116 0.179177 88
0.006119 0.031299 0.178710 83
0.006119 0.031564 0.178710 83
0.006119 0.031828 0.178710 86
0.006119 0.032093 0.178710 90
0.006119 0.032357 0.178710 93
0.006119 0.032622 0.178710 96
0.006135 0.032972 0.179177 101
0.006135 0.033238 0.179177 110
0.006135 0.033503 0.179177 120
0.006135 0.033768 0.179177 126
0.006135 0.034033 0.179177 135
0.006167 0.034479 0.180117 145
0.006183 0.034837 0.180591 154
0.006167 0.035012 0.180117 160
0.006167 0.035279 0.180117 161
0.006167 0.035545 0.180117 160
0.006167 0.035812 0.180117 160
0.006183 0.036174 0.180591 160
0.006183 0.036441 0.180591 160
0.006183 0.036708 0.180591 161
0.006183 0.036976 0.180591 159
0.006183 0.037243 0.180591 153
0.006183 0.037510 0.180591 149
0.006200 0.037878 0.181068 145
0.006200 0.038146 0.181068 143
0.006200 0.038414 0.181068 139
0.006200 0.038682 0.181068 132
0.006183 0.038847 0.180591 126
0.006183 0.039115 0.180591 121
0.006167 0.039279 0.180117 116
0.006167 0.039545 0.180117 112
0.006135 0.039604 0.179177 107
0.006103 0.039662 0.178246 102
0.006071 0.039720 0.177325 94
0.006119 0.040295 0.178710 88
0.006266 0.041533 0.182999 82
0.006455 0.043067 0.188530 77
0.010443 0.070124 0.304999 70
0.138216 0.934090 4.036749 61
1.174832 7.990565 34.312370 51
2.349664 16.082728 68.624741 43
2.349664 16.184325 68.624741 41
2.349664 16.285922 68.624741 43
2.349664 16.387520 68.624741 45
2.349664 16.489117 68.624741 48
0.003830 -0.012652 0.107226 139
0.003879 -0.012652 0.108583 146
0.003916 -0.012611 0.109624 153
0.003922 -0.012468 0.109800 156
0.003922 -0.012306 0.109800 158
0.003922 -0.012143 0.109800 160
0.003922 -0.011981 0.109800 161
0.003922 -0.011818 0.109800 161
0.003922 -0.011655 0.109800 162
0.003928 -0.011511 0.109976 164
0.003928 -0.011348 0.109976 165
0.003928 -0.011186 0.109976 167
0.003935 -0.011041 0.110152 169
0.003941 -0.010895 0.110329 171
0.003941 -0.010732 0.110329 172
0.003954 -0.010602 0.110685 175
0.003960 -0.010455 0.110864 174
0.003960 -0.010291 0.110864 174
0.003960 -0.010127 0.110864 173
0.003960 -0.009963 0.110864 173
0.003966 -0.009815 0.111043 172
0.003966 -0.009650 0.111043 171
0.003966 -0.009486 0.111043 171
0.003966 -0.009321 0.111043 172
0.003973 -0.009172 0.111223 173
0.003973 -0.009007 0.111223 173
0.003973 -0.008843 0.111223 172
0.003973 -0.008678 0.111223 172
0.003973 -0.008513 0.111223 173
0.003973 -0.008349 0.111223 173
0.003973 -0.008184 0.111223 172
0.003979 -0.008032 0.111404 166
0.003973 -0.007855 0.111223 162
0.003973 -0.007690 0.111223 159
0.003973 -0.007525 0.111223 158
0.003966 -0.007349 0.111043 156
0.003966 -0.007184 0.111043 154
0.003947 -0.006986 0.110507 150
0.003928 -0.006790 0.109976 146
0.003922 -0.006616 0.109800 144
0.003922 -0.006454 0.109800 142
0.003916 -0.006281 0.109624 140
0.003910 -0.006109 0.109449 137
0.003910 -0.005947 0.109449 135
0.003903 -0.005776 0.109275 132
0.003885 -0.005587 0.108756 128
0.003872 -0.005409 0.108412 124
0.003866 -0.005240 0.108241 120
0.003860 -0.005072 0.108070 117
0.003860 -0.004912 0.108070 114
0.003860 -0.004752 0.108070 112
0.003860 -0.004592 0.108070 111
0.003860 -0.004432 0.108070 108
0.003854 -0.004265 0.107901 104
0.003854 -0.004106 0.107901 101
0.003848 -0.003940 0.107731 95
0.003848 -0.003780 0.107731 94
0.003848 -0.003621 0.107731 94
0.003848 -0.003461 0.107731 96
0.003848 -0.003302 0.107731 98
0.003848 -0.003142 0.107731 98
0.003848 -0.002983 0.107731 99
0.003848 -0.002823 0.107731 100
0.003848 -0.002664 0.107731 102
0.003848 -0.002504 0.107731 104
0.003848 -0.002345 0.107731 107
0.003848 -0.002185 0.107731 109
0.003848 -0.002026 0.107731 111
0.003854 -0.001869 0.107901 112
0.003854 -0.001709 0.107901 113
0.003854 -0.001550 0.107901 114
0.003854 -0.001390 0.107901 115
0.003854 -0.001230 0.107901 116
0.003854 -0.001070 0.107901 116
0.003854 -0.000911 0.107901 117
0.003854 -0.000751 0.107901 120
0.003854 -0.000591 0.107901 123
0.003854 -0.000431 0.107901 126
0.003854 -0.000272 0.107901 129
0.003854 -0.000112 0.107901 131
0.003854 0.000048 0.107901 133
0.003854 0.000207 0.107901 134
0.003854 0.000367 0.107901 135
0.003848 0.000526 0.107731 138
0.003848 0.000686 0.107731 138
0.003848 0.000845 0.107731 138
0.003848 0.001005 0.107731 140
0.003830 0.001159 0.107226 146
0.003806 0.001309 0.106560 153
0.003812 0.001469 0.106726 161
0.003812 0.001627 0.106726 166
0.003806 0.001782 0.106560 171
0.003760 0.001916 0.105253 178
0.003659 0.002017 0.102425 184
0.003648 0.002162 0.102120 187
0.003648 0.002313 0.102120 188
0.003631 0.002453 0.101666 191
0.003610 0.002588 0.101067 194
0.003610 0.002738 0.101067 194
0.003610 0.002888 0.101067 193
0.003605 0.003033 0.100919 192
0.003605 0.003182 0.100919 193
0.003600 0.003327 0.100771 193
0.003600 0.003476 0.100771 193
0.003594 0.003620 0.100623 191
0.003589 0.003763 0.100475 189
0.003584 0.003906 0.100329 188
0.003584 0.004055 0.100329 188
0.003584 0.004203 0.100329 188
0.003589 0.004358 0.100475 189
0.003589 0.004507 0.100475 189
0.003589 0.004656 0.100475 188
0.003594 0.004812 0.100623 187
0.003600 0.004968 0.100771 185
0.003610 0.005132 0.101067 183
0.003615 0.005289 0.101216 181
0.003615 0.005439 0.101216 180
0.003615 0.005589 0.101216 181
0.003615 0.005739 0.101216 182
0.003653 0.005950 0.102272 186
0.003653 0.006102 0.102272 186
0.003659 0.006262 0.102425 188
0.003659 0.006414 0.102425 188
0.003659 0.006566 0.102425 188
0.003659 0.006717 0.102425 187
0.003670 0.006890 0.102732 183
0.003670 0.007042 0.102732 180
0.003824 0.007497 0.107059 174
0.003824 0.007655 0.107059 174
0.003848 0.007863 0.107731 170
0.003960 0.008256 0.110864 164
0.004556 0.009687 0.127555 153
0.004625 0.010025 0.129481 144
0.004425 0.009774 0.123871 132
0.003872 0.008715 0.108412 112
0.005836 0.013377 0.163392 79
0.005935 0.013849 0.166162 42
0.005935 0.014095 0.166162 33
0.005935 0.014341 0.166162 37
0.005935 0.014587 0.166162 41
0.005935 0.014833 0.166162 51
0.005935 0.015079 0.166162 57
0.005935 0.015325 0.166162 67
0.005935 0.015571 0.166162 73
0.005935 0.015817 0.166162 78
